7.2360 39.9110 33.8560 0.0
6.2280 39.3780 33.4200 1.0
5.2620 39.9980 32.6740 0.0
4.1230 39.1420 32.4210 1.0
5.2160 41.4350 32.5410 1.0
5.2740 41.9580 31.1950 0.0
4.2170 41.8560 30.2020 1.0
6.2530 42.8360 30.8120 1.0
7.2380 43.1340 31.4660 0.0
5.9270 43.3500 29.5940 0.0
4.6740 42.8370 29.0900 1.0
6.6180 44.4830 29.0280 1.0
7.4380 44.1660 27.8870 0.0
6.9450 44.0890 26.5330 1.0
8.8030 44.1160 27.9540 1.0
9.4690 44.2610 28.9700 0.0
9.2900 44.0600 26.6820 0.0
8.2390 44.0730 25.6850 1.0
10.6800 44.3190 26.3810 1.0
11.4080 43.1890 25.8630 0.0
11.3840 42.7730 24.4780 1.0
12.3900 42.5630 26.5820 1.0
12.6690 42.7890 27.7510 0.0
13.0800 41.7390 25.7410 0.0
12.5500 41.7580 24.3910 1.0
14.3790 41.2100 26.0900 1.0
14.4580 39.7720 26.2340 0.0
14.4830 38.8310 25.1340 1.0
14.7070 39.1740 27.4390 1.0
14.7890 39.7450 28.5140 0.0
14.9270 37.8390 27.2250 0.0
14.8330 37.4860 25.8230 1.0
15.5860 37.0100 28.2100 1.0
14.8040 35.8960 28.7050 0.0
14.5900 34.6640 27.9670 1.0
14.4500 35.7870 30.0190 1.0
14.6050 36.6440 30.8740 0.0
13.9980 34.5120 30.2390 0.0
14.0040 33.7100 29.0380 1.0
13.8430 33.9650 31.5680 1.0
12.4800 33.6780 31.9580 0.0
11.7540 32.4950 31.5400 1.0
11.8500 34.3500 32.9640 1.0
12.2890 35.3250 33.5510 0.0
10.7030 33.6680 33.2890 0.0
10.5230 32.4820 32.4770 1.0
9.9350 33.9560 34.4760 1.0
8.6330 34.5520 34.2490 0.0
7.4360 33.8120 33.8880 1.0
8.3820 35.8730 34.4780 1.0
9.2080 36.7110 34.8170 0.0
7.0340 36.0920 34.3170 0.0
6.4060 37.3140 34.7690 1.0
6.3130 34.8690 34.0180 1.0
5.7860 38.1170 33.7350 0.0
4.4730 37.8420 33.1910 1.0
4.4330 36.8260 32.1620 0.0
4.3820 35.4090 32.4360 1.0
4.1550 37.3410 30.9270 1.0
3.9060 36.6890 29.9340 0.0
3.9740 38.6930 31.0540 0.0
3.3410 39.4710 30.0110 1.0
4.1110 40.5870 29.5060 0.0
4.4540 40.6910 28.1810 1.0
4.2880 39.8210 27.3350 0.0
4.7880 41.9940 27.9180 0.0
4.9390 42.4990 26.5640 1.0
6.2900 42.8430 26.1750 0.0
6.9840 42.1530 25.2120 1.0
6.5970 41.1420 24.6370 0.0
8.1090 42.8660 24.8990 0.0
8.9360 42.5560 23.7540 1.0
10.2270 41.9930 24.0780 0.0
10.5490 40.6950 23.7900 1.0
9.7820 39.8580 23.3420 0.0
11.8990 40.5380 23.9570 0.0
12.6170 39.3840 23.4660 1.0
13.2080 38.5560 24.4930 0.0
12.7860 37.2680 24.7020 1.0
11.8330 36.7390 24.1540 0.0
13.7230 36.6270 25.4670 0.0
13.7540 35.1870 25.6060 1.0
13.5580 34.7030 26.9510 0.0
12.4540 33.9650 27.3000 1.0
11.4800 33.7660 26.5910 0.0
12.6970 33.3730 28.5050 0.0
11.8970 32.2750 29.0000 1.0
11.1680 32.5520 30.2140 0.0
9.7980 32.5850 30.2530 1.0
9.0530 32.5930 29.2800 0.0
9.4030 32.5230 31.5580 0.0
8.0380 32.2630 31.9440 1.0
7.3470 33.4010 32.5000 0.0
6.3090 34.0070 31.8440 1.0
5.6690 34.8260 32.7190 0.0
5.9650 33.7800 30.6910 0.0
