6.089380117826175276e-01 1.895572408876898818e+00 9.326161770638821125e-01 -1.391061988217382472e+00
7.668307703231769246e-02 8.626320219849212823e-01 5.658477625299058733e-01 -1.923316922967682308e+00
1.867578863460321870e-01 7.275850606556533151e-01 1.797367301042600785e+00 -1.813242113653967813e+00
1.697657630647759541e+00 1.148643719688889231e+00 1.821859561598845323e+00 -3.023423693522404587e-01
1.567913519167438263e+00 4.114046716672770110e-01 1.199241252427936777e+00 -4.320864808325617368e-01
1.645442242795653209e+00 1.176282254272069672e-01 1.533053398827058711e+00 -3.545577572043467907e-01
1.814113913222382024e+00 3.830453361057020167e-01 1.631670289945396535e+00 -1.858860867776179759e-01
1.294822059006129455e+00 9.732108988051861864e-01 3.583574349379494706e-01 -7.051779409938705445e-01
5.490068918885013804e-01 7.815504911280246603e-03 1.022405712249960352e+00 -1.450993108111498620e+00
8.788476457848968248e-01 1.538605211353522906e+00 5.626580233570337430e-01 -1.121152354215103175e+00
2.159621212982860694e-01 1.468500225896544054e+00 1.611042300035809838e+00 -1.784037878701713931e+00
9.074695731437396606e-01 1.391880388606639540e+00 1.656708745021506779e-01 -1.092530426856260339e+00
1.785777016690129892e+00 3.846815067182607351e-01 1.892281201140200375e+00 -2.142229833098701075e-01
3.944558546971270729e-01 1.877981569635969850e+00 9.512162242486068564e-01 -1.605544145302872927e+00
9.666818224763282785e-01 1.787824133093343093e-01 5.350389974048768149e-01 -1.033318177523671721e+00
1.433311984015813056e+00 5.035098181090609248e-01 1.672842751486242507e+00 -5.666880159841869435e-01
9.683627354233650397e-01 1.006061489589860081e-02 1.827816836024586999e+00 -1.031637264576634960e+00
1.681869535017621820e+00 1.100323543744162746e+00 1.348968170857757887e+00 -3.181304649823781805e-01
1.920458943341527780e+00 2.385802550814084544e-01 9.730052904036325945e-01 -7.954105665847222006e-02
5.814483113732304975e-01 1.262801597401013387e+00 1.268869605545532186e+00 -1.418551688626769502e+00
1.309965069904245993e+00 9.042477957935484145e-01 5.513236418653020277e-01 -6.900349300957540066e-01
1.729161337593128733e+00 1.330521519091789617e-01 8.383339140718240046e-01 -2.708386624068712667e-01
5.077064731457641145e-01 5.015644316651903800e-01 1.233341400434396773e+00 -1.492293526854235886e+00
1.663211144355597471e+00 4.520527639926807950e-02 1.341748114158621163e+00 -3.367888556444025294e-01
9.956629918778356902e-01 1.525775541593110463e+00 1.529843384236972970e-01 -1.004337008122164310e+00
1.510512870016260889e+00 7.055179864049014871e-01 9.112573056793511483e-01 -4.894871299837391110e-01
1.342235193787441716e+00 9.439243961221635004e-01 1.536243749765242583e+00 -6.577648062125582840e-01
1.318458961363658810e+00 1.960387349834632253e+00 5.284108608142281671e-01 -6.815410386363411899e-01
1.365130639070994523e+00 1.886412369818508683e-01 9.967705605593448759e-01 -6.348693609290054773e-01
1.030827336912360392e+00 3.843688465790884301e-01 1.903331686740697970e+00 -9.691726630876396076e-01
5.006500258046098217e-01 2.624063667686704626e-01 1.670132226452887281e-01 -1.499349974195390178e+00
1.224115602411878445e+00 1.554020518119433758e+00 5.197509944622120681e-01 -7.758843975881215549e-01
1.017817468869678388e+00 1.881253849936931566e+00 4.904059581175335136e-01 -9.821825311303216122e-01
4.621892683834056825e-01 1.553109623183783317e+00 1.753792523493881594e+00 -1.537810731616594317e+00
3.026310329593084880e-02 1.559231847581318942e+00 5.000552085992917561e-01 -1.969736896704069151e+00
1.941204362739185729e+00 4.175422613029353691e-01 1.579952209198305146e+00 -5.879563726081427077e-02
5.511662365939080654e-01 3.112317872612249126e-01 1.914624250951917350e+00 -1.448833763406091935e+00
8.399402445951917873e-01 1.338445554888847422e-01 1.716584775043465072e+00 -1.160059755404808213e+00
4.486525370985292582e-01 7.591713143944727182e-01 1.120699852422509579e+00 -1.551347462901470742e+00
1.981585946165550727e+00 1.531229404681377915e+00 1.460097825027018015e-01 -1.841405383444927324e-02
6.581219809593408243e-01 9.841252045492374645e-01 6.278247960204270672e-01 -1.341878019040659176e+00
1.178947169960440355e+00 1.999745951051898230e+00 1.485529202775966562e+00 -8.210528300395596446e-01
1.907584394622173996e+00 4.352224732821139419e-01 8.899614473144046300e-01 -9.241560537782600449e-02
1.523040311258616608e+00 2.918188074487670924e-02 1.440423745894297447e+00 -4.769596887413833919e-01
7.593305062742192746e-01 1.735108976362619515e+00 1.044516790168665832e-01 -1.240669493725780725e+00
1.208519719531109260e+00 1.505073358100550429e-01 2.853438241150212384e-01 -7.914802804688907401e-01
1.398879310845846380e-01 4.014802285871297283e-01 1.635344657443605243e+00 -1.860112068915415362e+00
8.233623357525867714e-01 1.930611150537866916e+00 3.614248415767047362e-01 -1.176637664247413229e+00
3.389627552517775477e-01 5.818303974084788610e-01 1.734567965840298154e+00 -1.661037244748222452e+00
1.125191424211250846e+00 1.807106609635771965e+00 1.797525464051008992e+00 -8.748085757887491543e-01
1.528581542392703829e+00 6.271743722163698465e-01 7.614859324230023319e-01 -4.714184576072961708e-01
1.585575389553625980e+00 1.222749375066690014e+00 6.008579704933350030e-01 -4.144246104463740199e-01
9.782707717865424257e-02 8.620728502186281172e-01 1.240107819796200994e+00 -1.902172922821345757e+00
1.297287314246361012e+00 1.151367176133988757e+00 1.951224755637303909e+00 -7.027126857536389881e-01
1.202514139908681390e-01 1.584101650409008633e+00 1.270060683735519946e+00 -1.879748586009131861e+00
1.514566108495996932e+00 1.385023845110362917e+00 1.725343716077902378e+00 -4.854338915040030678e-01
9.676100307437403014e-01 1.974155029889174129e+00 1.868725562391733819e+00 -1.032389969256259699e+00
8.608625958083759855e-02 1.806053316039291090e-01 1.785885827679581261e+00 -1.913913740419162401e+00
1.258612111193147420e+00 1.308262663451661645e+00 2.698000861919969129e-01 -7.413878888068525796e-01
6.878566559808694247e-01 1.953171265478059970e+00 9.640438732827052437e-01 -1.312143344019130575e+00
1.498285825562611251e+00 9.930273661204596092e-01 8.484776344307043416e-01 -5.017141744373887491e-01
9.308577457504925157e-01 4.764922328964882325e-02 1.536604827449653543e+00 -1.069142254249507484e+00
1.031573478540922517e+00 1.265565638696760420e+00 2.347577918274557085e-02 -9.684265214590774828e-01
5.934590484575836822e-01 1.061825469395550892e+00 1.783552588342341760e+00 -1.406540951542416318e+00
7.797132125943984082e-01 2.123088916686277638e-01 7.250175191131396080e-01 -1.220286787405601592e+00
1.295972370246355254e+00 1.487759825896509458e+00 9.269388008910599552e-01 -7.040276297536447458e-01
1.194276287812808146e+00 5.766282283858332747e-01 1.581772364343096093e+00 -8.057237121871918539e-01
5.076155343381321128e-01 3.255130545921967045e-01 9.245067418739458809e-01 -1.492384465661867887e+00
6.799253738312596163e-01 1.235043006947318389e+00 2.152279359936160041e-01 -1.320074626168740384e+00
1.703617148321306951e+00 2.805818863993614354e-01 8.677167765320807913e-01 -2.963828516786930489e-01
1.351895485651709139e+00 1.555014948254227036e+00 2.974636303451345665e-01 -6.481045143482908610e-01
1.929360908071368286e+00 6.542379670782318968e-01 8.966736919556865804e-01 -7.063909192863171427e-02
1.253521621771273020e+00 7.412590455764260788e-01 1.417182676897562832e+00 -7.464783782287269798e-01
6.614461220786109763e-01 6.889123542188491101e-01 1.278867893568724101e+00 -1.338553877921389024e+00
1.589749856892641366e+00 1.795929799010695493e+00 1.744708110349745489e+00 -4.102501431073586335e-01
1.898571150853491263e+00 4.359367836155936260e-02 7.990677410094908506e-01 -1.014288491465087372e-01
7.075153030227812057e-01 1.418854910484874443e+00 5.066124331770838207e-01 -1.292484696977218794e+00
6.889114066875718922e-01 4.138701121898697988e-01 1.896755027348180356e-01 -1.311088593312428108e+00
1.362958164188043053e+00 7.657436672634856389e-01 1.795441704313111009e+00 -6.370418358119569469e-01
1.099884069213510340e-01 1.193387919137181896e+00 4.638806341053260951e-01 -1.890011593078648966e+00
1.042384095505014097e+00 6.799710896082273859e-01 1.656112046223235934e+00 -9.576159044949859034e-01
1.654023860267571200e+00 1.508113350813689912e+00 1.103855530326249612e+00 -3.459761397324288001e-01
4.975138257530065111e-02 1.912368512471447568e+00 1.866524167810909240e+00 -1.950248617424699349e+00
6.249976987767122960e-01 1.130553557451223545e+00 1.671467974245877564e+00 -1.375002301223287704e+00
1.968485157064695068e+00 7.715898353698018575e-01 1.749921587893353614e+00 -3.151484293530493197e-02
9.418416889961298555e-01 1.590668353672336277e+00 1.740840967199910994e+00 -1.058158311003870145e+00
2.100803694323702953e-01 1.743636513043112402e+00 1.477672011616137704e+00 -1.789919630567629705e+00
3.351462108849593946e+00 1.008506629430335311e+00 1.569183740546997718e-02 1.351462108849593946e+00
2.682016710224899736e+00 3.151423103966743966e-01 9.082282594554826893e-01 6.820167102248997359e-01
2.595881661874714474e+00 1.609316093911827839e-01 1.209544517656149232e-01 5.958816618747144744e-01
2.763912563250359611e+00 8.337232258998368284e-01 1.508033116178124855e+00 7.639125632503596108e-01
3.146111710699385888e+00 1.788231106959150774e+00 1.842015466658577294e+00 1.146111710699385888e+00
2.230947058233690328e+00 1.707312436325362670e+00 6.407698743297423061e-01 2.309470582336903277e-01
3.153610713363050877e+00 1.399526197738609312e+00 4.993878420076383051e-01 1.153610713363050877e+00
3.858223786552770207e+00 8.547618174542497282e-01 8.025803536436217911e-01 1.858223786552770207e+00
2.825951733119670628e+00 3.111833636408656290e-02 1.756840651567505462e+00 8.259517331196706280e-01
2.529337166753711674e+00 9.482960484626312692e-02 1.894036325006334343e+00 5.293371667537116743e-01
2.057233153872882525e+00 1.547738207684595357e+00 1.146698596775448165e+00 5.723315387288252509e-02
3.439345501747716582e+00 9.515076007084393162e-01 1.436806141643075074e+00 1.439345501747716582e+00
2.001500071656588275e+00 1.546857131884528780e+00 9.545904951352224277e-01 1.500071656588275459e-03
2.594414498906270516e+00 1.262977288220070271e+00 1.235151573812787618e+00 5.944144989062705164e-01
3.315799592490675352e+00 5.129721220295169193e-01 3.672780434584288489e-01 1.315799592490675352e+00
2.764838724090981970e+00 1.435693618371696179e+00 1.868879046780731468e-01 7.648387240909819695e-01
2.270792345147935265e+00 8.456760116372701308e-01 4.337838703347816072e-01 2.707923451479352650e-01
3.867385584662504261e+00 9.109365080270124260e-01 3.341864862185119911e-01 1.867385584662504261e+00
2.674641042419708015e+00 3.916552475513075393e-01 4.216489701428911552e-01 6.746410424197080147e-01
3.627963550087481615e+00 1.930030991796888973e+00 4.354325085290844388e-01 1.627963550087481615e+00
3.761760776657086858e+00 1.485116679129104167e+00 8.702090697865858537e-01 1.761760776657086858e+00
2.434393866128238049e+00 1.518225400337707143e-01 1.752688667340120743e+00 4.343938661282380487e-01
2.872282779707896694e+00 2.912877783161120782e-01 9.219026148674396293e-01 8.722827797078966938e-01
3.008185160885920695e+00 3.162039478889822064e-01 1.113328620436697225e+00 1.008185160885920695e+00
2.666101625365373096e+00 2.330831700504671922e-01 1.509590453946629829e+00 6.661016253653730956e-01
3.220975268290125371e+00 1.096671959104307925e+00 3.927996492926115746e-01 1.220975268290125371e+00
2.923668446081444827e+00 1.085824228992298579e+00 1.652365735017783610e+00 9.236684460814448272e-01
3.110466518140221570e+00 1.884665308138203432e+00 1.430200211411430056e+00 1.110466518140221570e+00
2.795414089108168909e+00 1.703390782445431739e+00 1.869091582301960486e+00 7.954140891081689091e-01
3.366853904132133479e+00 1.226396263658928065e+00 1.556493664030603741e+00 1.366853904132133479e+00
3.581768234074324653e+00 1.308804401526757033e+00 1.785601083933984423e+00 1.581768234074324653e+00
3.393103238734550775e+00 6.082805220528946233e-01 1.953848869583947101e+00 1.393103238734550775e+00
3.404197247526260739e+00 1.430882092126977145e+00 1.118026024013582864e+00 1.404197247526260739e+00
3.796189893321414210e+00 1.792673985685497851e+00 1.347450773580791905e+00 1.796189893321414210e+00
3.966149285664128055e+00 1.416822428958117941e+00 1.265621352030016800e+00 1.966149285664128055e+00
3.289785364229704356e+00 1.706292150193660540e+00 8.861773041975762322e-01 1.289785364229704356e+00
3.194046765411838962e+00 1.903009911512375529e+00 1.703938502666878740e+00 1.194046765411838962e+00
3.920619410096844781e+00 1.513632587974615085e+00 1.535109705946709147e+00 1.920619410096844781e+00
3.293209302630184965e+00 5.519506767794639668e-01 1.907710466170907671e+00 1.293209302630184965e+00
2.302651283052608022e+00 3.420600121746262268e-01 1.273701705125057648e+00 3.026512830526080222e-01
3.469665900255868962e+00 6.025070128833878158e-01 1.565417931308900723e+00 1.469665900255868962e+00
2.798339749723447234e+00 1.836694154476812724e+00 2.790774107793247971e-01 7.983397497234472340e-01
3.482359309988746432e+00 1.083583538672077573e+00 1.708063323653314036e+00 1.482359309988746432e+00
2.788621839193289986e+00 3.622729622137874639e-01 1.391841577772236604e+00 7.886218391932899863e-01
3.507357466349173336e+00 4.133245836413401708e-01 1.542922887421504852e+00 1.507357466349173336e+00
2.775129059747340143e+00 5.771583700832814134e-01 1.275258847769206838e+00 7.751290597473401434e-01
2.690476791987312932e+00 2.401391398037910907e-01 1.577103913776877420e+00 6.904767919873129323e-01
2.488276119330612435e+00 1.531468771440376297e-01 1.417821154665916739e+00 4.882761193306124348e-01
3.697961363644633348e+00 1.142419214737135258e+00 4.554395696836928131e-01 1.697961363644633348e+00
2.059232781669875223e+00 8.164708460643101962e-01 2.638801806333705979e-01 5.923278166987522297e-02
2.961477410056173376e+00 1.964336381953938560e+00 2.264289543528819060e-01 9.614774100561733761e-01
3.681266255211181004e+00 1.768006209357453562e+00 1.714684360758935711e+00 1.681266255211181004e+00
3.813635517377132356e+00 2.394823748254644169e-01 2.741177872917879288e-01 1.813635517377132356e+00
2.593668535043794243e+00 1.218006312107683620e+00 1.455648003612404429e+00 5.936685350437942432e-01
2.691874120718470209e+00 1.839828174768731950e+00 8.213995591854401646e-01 6.918741207184702091e-01
3.015755480392282806e+00 1.588272701767566630e+00 1.576897652535472982e+00 1.015755480392282806e+00
2.642571565746259843e+00 1.405590189209343865e+00 1.557688006859094809e-01 6.425715657462598429e-01
3.261402224922777204e+00 1.564952731859163837e-01 1.229604107818296654e+00 1.261402224922777204e+00
2.517738346497493840e+00 1.957398404350450871e+00 9.495045869354812318e-01 5.177383464974938398e-01
3.862962859670038718e+00 1.397792602559586372e+00 1.683901058032656328e+00 1.862962859670038718e+00
3.247676754948499500e+00 6.265509501765960110e-01 1.926044413032972580e+00 1.247676754948499500e+00
3.199299116461014059e+00 2.819693250437547150e-01 1.804992575434882562e+00 1.199299116461014059e+00
2.716452109622284894e+00 4.655625716842834994e-01 1.967668399740297058e+00 7.164521096222848939e-01
3.624348944497983727e+00 3.795118297114246086e-01 1.735533554549175017e+00 1.624348944497983727e+00
2.431414690347714291e+00 7.930968634394117700e-01 1.671474133368316295e+00 4.314146903477142914e-01
3.594142598000104272e+00 1.300585071310872420e+00 4.929518016769427469e-01 1.594142598000104272e+00
3.124773221424923531e+00 1.746970873410242486e+00 1.459420035989154263e+00 1.124773221424923531e+00
3.023466939275286425e+00 3.407564987810867141e-01 8.289482640287126891e-02 1.023466939275286425e+00
2.931610739174394631e+00 1.480362482967283233e+00 1.290879210151089307e+00 9.316107391743946309e-01
2.953983374700207776e+00 1.859994048352676232e+00 1.296357679673312946e+00 9.539833747002077757e-01
3.681083591364917584e+00 7.037449493364245079e-01 1.478393992094906739e+00 1.681083591364917584e+00
2.749091555592445779e+00 1.174973758522142253e+00 1.494875769583841052e-01 7.490915555924457792e-01
2.516912837467573993e+00 1.164752182443788531e+00 2.377567223701599897e-01 5.169128374675739934e-01
3.565462550880536874e+00 1.501239611643324201e+00 1.959972161614268460e+00 1.565462550880536874e+00
3.496724598950934126e+00 1.556367569657914229e+00 1.411629544285822213e+00 1.496724598950934126e+00
2.543313650707082374e+00 2.264417239385112524e-01 1.522330236572686513e-01 5.433136507070823740e-01
2.097167630524979121e+00 2.750417217368463785e-01 1.561048571430708076e+00 9.716763052497912057e-02
2.334479951909171014e+00 1.962642708841545458e+00 1.311453604753902713e+00 3.344799519091710138e-01
3.328399853501613492e+00 3.708443761749649070e-01 1.644872055516790166e+00 1.328399853501613492e+00
2.363739455968265624e+00 1.476198113761461705e+00 1.812442133950917356e+00 3.637394559682656237e-01
3.894429869975049918e+00 7.371021174888563454e-01 1.537515155185719351e+00 1.894429869975049918e+00
3.013647372403644553e+00 1.725426166288687391e+00 1.286008901620254274e+00 1.013647372403644553e+00
3.379668208605735025e+00 1.804025467623535661e+00 9.460298989581679141e-01 1.379668208605735025e+00
2.964678159328124618e+00 1.749621393146227888e-02 1.101461710109534087e+00 9.646781593281246181e-01
2.938897306871062653e+00 3.389737792178855180e-01 1.081185484135418040e+00 9.388973068710626535e-01
3.087436868913127519e+00 1.368910429528981787e+00 1.608383750753767050e+00 1.087436868913127519e+00
3.243061971193477167e+00 1.813491804632152649e+00 5.744865464547577183e-01 1.243061971193477167e+00
3.211320755807903105e+00 1.588212722649146924e+00 9.399071006672063966e-01 1.211320755807903105e+00
3.834751463177766162e+00 1.393104264693130201e+00 2.500089152252167324e-01 1.834751463177766162e+00
3.349137552846736199e+00 1.227967060481335748e+00 6.631990619901371176e-01 1.349137552846736199e+00
2.132181142512629357e+00 5.263179389070946623e-01 1.476697628229235892e+00 1.321811425126293571e-01
3.452499887906959053e+00 9.120489704641077111e-03 4.306509085164840211e-01 1.452499887906959053e+00
2.452539503839318957e+00 1.092580920957059609e+00 6.727187334363879945e-01 4.525395038393189573e-01
2.931968169398253110e+00 1.160785620714033239e-01 8.647827356348940508e-01 9.319681693982531101e-01
3.962971886264591959e+00 1.242429681937874841e+00 1.400525873518360331e+00 1.962971886264591959e+00
3.308332258686398575e+00 3.638397803733381952e-01 1.719738541370144258e+00 1.308332258686398575e+00
2.689330828530374085e+00 2.359568083156606821e-01 4.328926490436479924e-01 6.893308285303740846e-01
2.774064706867065855e+00 1.927051917804962544e+00 1.690116182302506154e+00 7.740647068670658548e-01
3.505638108835096745e+00 6.983512736257069253e-01 1.195334350450367733e+00 1.505638108835096745e+00
3.334570218481601955e+00 6.969983871377058993e-01 1.293423774442525875e-02 1.334570218481601955e+00
3.611152018447309153e+00 1.176745522805425770e+00 1.547900824240322493e-01 1.611152018447309153e+00
3.018500009769907066e+00 9.117478476753304584e-02 2.556069342080680151e-01 1.018500009769907066e+00
2.912752603621818981e+00 3.578934587439615012e-01 2.590157704782114489e-01 9.127526036218189809e-01
2.811702375717790137e+00 1.342937330153905817e+00 1.433288203607173905e+00 8.117023757177901366e-01
2.356154341671244268e+00 1.543910694921432292e+00 1.523346976974166544e+00 3.561543416712442678e-01
2.091136289337984344e+00 1.882375728030401651e+00 6.849543677405482978e-01 9.113628933798434417e-02
2.436394291340402418e+00 1.205975554678944128e-01 6.009105785017816448e-01 4.363942913404024182e-01
2.334746406677883357e+00 5.833249522832666401e-01 1.938019084459505992e+00 3.347464066778833569e-01
3.849506956793105061e+00 3.202497096635468221e-01 1.623773734112902600e+00 1.849506956793105061e+00
2.556166040325888122e+00 5.591205626722939304e-01 8.813436460711874254e-01 5.561660403258881225e-01
3.782527047232854933e+00 7.304865904732436022e-01 4.792412457441463935e-02 1.782527047232854933e+00
2.531111911462585518e+00 3.679462962248727376e-01 1.067008482281676773e+00 5.311119114625855175e-01
3.894831789020795743e+00 9.760780576069971737e-01 1.899174817291184869e+00 1.894831789020795743e+00
2.127601455039673795e+00 2.236848756326292875e-01 3.151026356513682014e-01 1.276014550396737945e-01
2.711769106902782056e+00 7.044354808726849271e-01 1.673887380110344436e+00 7.117691069027820561e-01
3.116554743608841882e+00 4.098584431511955728e-01 7.765199885169218330e-01 1.116554743608841882e+00
3.866612108595804287e+00 5.998673292885166042e-01 1.216827178964325240e+00 1.866612108595804287e+00
3.308799566785053159e+00 1.439353441779369192e+00 3.870459251909696974e-01 1.308799566785053159e+00
2.365336231728521810e+00 1.420903970707710684e+00 8.684951141017260845e-01 3.653362317285218097e-01
2.097259804309402398e+00 1.268133689788125906e+00 1.560242621938340069e+00 9.725980430940239785e-02
3.260419847022257400e+00 4.360109085895444991e-01 1.946994606637955094e-01 1.260419847022257400e+00
2.288631980626047557e+00 1.700414688942635255e+00 7.973784586920671380e-01 2.886319806260475573e-01
2.381775876947202608e+00 1.974448931261884699e+00 3.101766589294498999e-01 3.817758769472026081e-01
2.352530764427505083e+00 4.655230998999633218e-01 1.520957254030692596e-01 3.525307644275050833e-01
3.279321986796916555e+00 1.079854529478041059e+00 9.898764290109185460e-02 1.279321986796916555e+00
3.652814826035049922e+00 1.000764385989632022e-01 1.502074850374630177e+00 1.652814826035049922e+00
3.526133847873145211e+00 4.956601927829946685e-01 1.013553832543671041e+00 1.526133847873145211e+00
3.505286803864358536e+00 1.242863885351931152e+00 4.654131756456532099e-01 1.505286803864358536e+00
3.459174056484845661e+00 1.415680118230700169e+00 6.575806900738954131e-01 1.459174056484845661e+00
2.178824102092471016e+00 9.144650582394144855e-01 6.237639606473099896e-02 1.788241020924710156e-01
3.267385876643566611e+00 7.539906281183594849e-01 4.832147282864962534e-03 1.267385876643566611e+00
2.971919929353937118e+00 2.496836551107382007e-01 1.062125736285205457e+00 9.719199293539371176e-01
3.291819976243071544e+00 1.546910195781331154e+00 1.721663377713444021e+00 1.291819976243071544e+00
2.987311730906672569e+00 1.369258645382691597e-01 4.041075951622428164e-01 9.873117309066725689e-01
3.697246169780738168e+00 1.712148703653048720e+00 1.208232391937385852e+00 1.697246169780738168e+00
3.991096002237003226e+00 6.668726862238583131e-01 8.710985376169899652e-01 1.991096002237003226e+00
2.519217429070602865e+00 1.694290643093019355e-01 1.693057781182774058e-01 5.192174290706028650e-01
3.945477325364677768e+00 6.886989297177616987e-01 2.956484787189275210e-01 1.945477325364677768e+00
3.822212998129090877e+00 2.847945507258797804e-02 1.603879060446044669e+00 1.822212998129090877e+00
2.274475834463567381e+00 1.587897490032345926e+00 1.244218484805684977e+00 2.744758344635673808e-01
2.664369444401494036e+00 1.067822569169295077e+00 1.542433308033940076e+00 6.643694444014940359e-01
2.353353935283403420e+00 1.644119752574775717e+00 1.651572115147941888e+00 3.533539352834034197e-01
3.621787973607840438e+00 1.764625198961939700e+00 1.987708565973255181e+00 1.621787973607840438e+00
2.436365814219821679e+00 1.169402662706470197e+00 1.761451233412575368e+00 4.363658142198216794e-01
3.673460696128313607e+00 1.314967842756632255e+00 2.279361919057369956e-01 1.673460696128313607e+00
3.697248596496207185e+00 1.889214511802147278e+00 1.928765634307103127e+00 1.697248596496207185e+00
2.197365572144588164e+00 6.749930069593841342e-01 2.728113585395486318e-02 1.973655721445881639e-01
2.978402233172709135e+00 1.968629535768229077e+00 1.601236905877798655e-01 9.784022331727091348e-01
2.222090659740162177e+00 3.271076117352245127e-02 2.379202730432390389e-01 2.220906597401621774e-01
2.283841659560573945e+00 1.340656724103260533e+00 1.771809641101029342e+00 2.838416595605739445e-01
2.941361235478539449e+00 1.615406354071802220e+00 6.125944080412615289e-01 9.413612354785394487e-01
2.870518431583755969e+00 1.328815110924540299e+00 1.387837239259246624e+00 8.705184315837559694e-01
2.198847031967609222e+00 1.487296878915291609e+00 4.440128574253161542e-01 1.988470319676092224e-01
3.872006980218096750e+00 8.430925027214963841e-02 1.216708755071671533e+00 1.872006980218096750e+00
3.952576502411706549e+00 8.426324256209571928e-02 1.055475622672937153e+00 1.952576502411706549e+00
3.699503389224298999e+00 8.337022019169215703e-02 4.784512033160812638e-01 1.699503389224298999e+00
2.599014859792110776e+00 1.391145828963844755e+00 2.812322981670443145e-01 5.990148597921107765e-01
2.356231349156989285e+00 1.183863900265778701e+00 3.433691906758846724e-01 3.562313491569892854e-01
2.438354108571021861e+00 1.546497419274803331e+00 1.086553081493773609e+00 4.383541085710218610e-01
2.834285179341130334e+00 3.543490012653467414e-01 4.914394518657709821e-01 8.342851793411303341e-01
3.954899489693866954e+00 4.841702099557099181e-01 7.263807517172864436e-01 1.954899489693866954e+00
3.530264359645242767e+00 9.119339477353138879e-01 1.008525044622208044e+00 1.530264359645242767e+00
2.224331360922906065e+00 1.722008157150585639e+00 6.931598844754855993e-01 2.243313609229060646e-01
3.339082063989766258e+00 8.737020933526029598e-01 1.107774193741852820e-01 1.339082063989766258e+00
2.607919690080829245e+00 6.383106017815443067e-05 4.558653405880626064e-01 6.079196900808292447e-01
3.421972034413984787e+00 4.219290580483243680e-01 1.887019100405364691e+00 1.421972034413984787e+00
2.806226249848470911e+00 6.293350827854635732e-01 1.837035443720868910e+00 8.062262498484709106e-01
2.335202518524208237e+00 1.735874215062681580e+00 1.566545568408627576e+00 3.352025185242082372e-01
2.445834059849573805e+00 3.055630028750644378e-02 5.863899387297502042e-01 4.458340598495738050e-01
2.756990205117054948e+00 1.353368340885529486e+00 4.691245375341184243e-01 7.569902051170549484e-01
2.373122386872386524e+00 1.044788883878845498e+00 1.820598244515369002e+00 3.731223868723865245e-01
3.193291901595824100e+00 5.846296720885835185e-02 1.555462065783415504e+00 1.193291901595824100e+00
2.510670515898689725e+00 1.125469758743456117e+00 7.500775123701486358e-01 5.106705158986897253e-01
2.386698204212253316e+00 1.540907681521664019e+00 1.397023626757560866e+00 3.866982042122533159e-01
3.297216031960253702e+00 1.670477070881321913e+00 1.533153367582062554e+00 1.297216031960253702e+00
3.458339748012532411e+00 3.265203962335119225e-01 1.346130235077456661e+00 1.458339748012532411e+00
3.213684938853107020e+00 5.213159448647015637e-01 2.036994535538383388e-02 1.213684938853107020e+00
3.806867013624663620e+00 1.266921700947275298e+00 1.596139186836391444e+00 1.806867013624663620e+00
2.185328391131030834e+00 4.727544349451060501e-01 7.086053874729048019e-01 1.853283911310308341e-01
3.269766051842998955e+00 3.514955479107164660e-01 1.274507420009112435e+00 1.269766051842998955e+00
2.086369998715735363e+00 6.895120760762514234e-01 5.466526521792338666e-01 8.636999871573536325e-02
3.670005491376637341e+00 1.684593035087690316e+00 2.168230180084358416e-01 1.670005491376637341e+00
3.383124787905053221e+00 1.065472716159657329e+00 1.877916647592843047e+00 1.383124787905053221e+00
3.638614863069817851e+00 1.990668139724616870e+00 1.957093021897286178e+00 1.638614863069817851e+00
3.106507846774343662e+00 6.373479600437739201e-01 7.991192491777687756e-02 1.106507846774343662e+00
2.481766652648080829e+00 9.355954465436484568e-01 1.424726850630828601e-01 4.817666526480808287e-01
2.892711268641448008e+00 1.530299605742308611e+00 3.689901660392669314e-02 8.927112686414480081e-01
3.225523533715558777e+00 1.852968786441860694e+00 2.294850555743150888e-01 1.225523533715558777e+00
2.888859304292936692e+00 1.450200558643819804e+00 1.494529212546604535e+00 8.888593042929366916e-01
3.218907147711892236e+00 1.322977258067561390e+00 1.897291276434875940e-02 1.218907147711892236e+00
2.441268664200152649e+00 6.975632073378261744e-01 1.537247682460445963e+00 4.412686642001526494e-01
3.993570953245167310e+00 1.859934323916462517e+00 3.547098661217362725e-02 1.993570953245167310e+00
2.067164004835637670e+00 1.102000700352853801e+00 1.821534461633348645e+00 6.716400483563766954e-02
3.280545279519152757e+00 4.735365275866016965e-01 6.689412031529335945e-01 1.280545279519152757e+00
2.048382115682414462e+00 1.648794356354365220e+00 1.145004346083771329e+00 4.838211568241446159e-02
2.519014383513671795e+00 1.439398399499286940e+00 1.270241912996620703e+00 5.190143835136717954e-01
2.613093856906743895e+00 1.183032025058181613e+00 2.134177567805222164e-01 6.130938569067438948e-01
3.324455034311617929e+00 6.341174378839811165e-01 4.221703623423316287e-01 1.324455034311617929e+00
3.637391707924224615e+00 1.276166326544731167e+00 6.670889916144082665e-01 1.637391707924224615e+00
3.748805654459400838e+00 1.439038260268116876e+00 1.000936646325869095e+00 1.748805654459400838e+00
3.641627864715689000e+00 1.668136656473634405e+00 6.217455432410583516e-01 1.641627864715689000e+00
3.972085465250726699e+00 1.192456701259347662e+00 1.721536060586960959e+00 1.972085465250726699e+00
2.735474967497657506e+00 1.506673044913074966e+00 1.255669164659913184e+00 7.354749674976575058e-01
3.130926429043492387e+00 6.044465559773033458e-01 1.352064051122335631e+00 1.130926429043492387e+00
2.402650617022421997e+00 9.788049189956906648e-01 1.678570314861387303e-01 4.026506170224219971e-01
3.614677122996633685e+00 8.677201950985491408e-02 8.012073616596888659e-01 1.614677122996633685e+00
3.507433740401880939e+00 1.163111172370682178e+00 5.052496965381456651e-01 1.507433740401880939e+00
2.519699172201650406e+00 1.030448810133648418e-01 1.313669447786453226e+00 5.196991722016504056e-01
2.978632062058042429e+00 1.609069875366458513e+00 2.617932484253300274e-01 9.786320620580424290e-01
2.252342036785613288e+00 1.918111302168765242e+00 1.394743403187948649e+00 2.523420367856132884e-01
2.223222948171496238e+00 8.847538594950246083e-01 1.154079369995475224e+00 2.232229481714962382e-01
3.352816341353607399e+00 1.071165711608555782e+00 1.956352242188031054e+00 1.352816341353607399e+00
3.292644467877382741e+00 1.318899522728119500e+00 1.435422136409885807e+00 1.292644467877382741e+00
3.721897250563063864e+00 1.140284791704947676e+00 9.973277542401990381e-01 1.721897250563063864e+00
2.033580754807464253e+00 1.443747542564496555e+00 2.372650702765746189e-01 3.358075480746425256e-02
3.823269579430494503e+00 1.786829144312448436e+00 1.270717492569372054e+00 1.823269579430494503e+00
3.249641545849419000e+00 2.387338347909000458e-01 8.916382585729163424e-01 1.249641545849419000e+00
3.362714524416871242e+00 1.712455452655950339e+00 1.967978770213243411e-01 1.362714524416871242e+00
3.577690362852885997e+00 1.315715678747019002e+00 1.602226233741279593e-01 1.577690362852885997e+00
2.082640727518901613e+00 6.929553445562375291e-01 1.374704903115371302e+00 8.264072751890161328e-02
2.236600966186322204e+00 8.177778377082489669e-01 6.435078703755656715e-01 2.366009661863222036e-01
2.446556462037176694e+00 1.125525239869586080e+00 1.573159631664121649e+00 4.465564620371766935e-01
2.502964541438662316e+00 1.389405015077088912e+00 4.897050739564159372e-01 5.029645414386623159e-01
3.058354689785915070e+00 2.618857528119939992e-01 9.437000255418093175e-01 1.058354689785915070e+00
2.951018785191124927e+00 1.371225576129709856e+00 1.640660473476450942e+00 9.510187851911249268e-01
3.209869589785716570e+00 1.631096524169157735e-01 3.752218253957024796e-01 1.209869589785716570e+00
3.111349198375226166e+00 1.847160615935462324e+00 4.544217408785162782e-01 1.111349198375226166e+00
3.961683061391489957e+00 1.370496632822151284e+00 1.241696398923385569e+00 1.961683061391489957e+00
3.786289865933056831e+00 7.668095458771426731e-01 1.983601481709401648e+00 1.786289865933056831e+00
2.235429283385253818e+00 1.483834352740480700e+00 4.579642107378818494e-01 2.354292833852538180e-01
3.928577340977254195e+00 1.916416361904786481e+00 1.151212433208940844e+00 1.928577340977254195e+00
2.695096416984936738e+00 4.215882207046317554e-02 8.054483813657566937e-01 6.950964169849367380e-01
2.931477131738537523e+00 1.848493432769644285e+00 1.631883341213688166e+00 9.314771317385375227e-01
3.210214776779798829e+00 1.730895305898302317e+00 1.377857664331516796e+00 1.210214776779798829e+00
3.318119506889347647e+00 1.440573093818264816e+00 1.433160831766330245e+00 1.318119506889347647e+00
2.470964311611147490e+00 6.147118464937915139e-01 1.562100519714420432e+00 4.709643116111474903e-01
3.954009236673058147e+00 7.525067882932079399e-01 1.105007135097969995e+00 1.954009236673058147e+00
3.745070684964234342e+00 1.715663960535413146e+00 1.518202659547488675e+00 1.745070684964234342e+00
2.822866073876538096e+00 9.047642947767466914e-01 1.703174253279753358e-01 8.228660738765380955e-01
2.884722796297895187e+00 5.099548407862810606e-01 1.874056040167566550e+00 8.847227962978951865e-01
3.610410670261142929e+00 8.023982014418706843e-01 1.573665782912839539e+00 1.610410670261142929e+00
2.071274825545857290e+00 2.084755460283782558e-01 3.989479830185185261e-01 7.127482554585728991e-02
2.914054534374743710e+00 1.729445251962011820e-01 9.003667091540383804e-01 9.140545343747437101e-01
3.948967978374287036e+00 1.779803769820473169e+00 1.510519353828751798e+00 1.948967978374287036e+00
3.327007962854514833e+00 1.087473357482281688e+00 2.343163703031170275e-01 1.327007962854514833e+00
2.018247905717604151e+00 1.809429940897663069e+00 6.928383607927273147e-01 1.824790571760415148e-02
2.170968771795904750e+00 3.555473903780947964e-01 2.466656421046222736e-01 1.709687717959047504e-01
3.706538292819920866e+00 1.621513903121253319e+00 4.076060718185789966e-01 1.706538292819920866e+00
3.766739977116294824e+00 1.627015092739790836e+00 1.716818069400878333e-01 1.766739977116294824e+00
2.860814437450815539e+00 1.656191273678705445e+00 1.263269880924487554e+00 8.608144374508155394e-01
3.250517407507550693e+00 1.269084180380649407e+00 5.391983509034219413e-01 1.250517407507550693e+00
3.519243241779288489e+00 1.524924809422565364e+00 9.298224165381236972e-01 1.519243241779288489e+00
2.351242162617182885e+00 1.582481869842435440e+00 1.501613660514364179e+00 3.512421626171828848e-01
3.384954181849506583e+00 1.353742984487138035e+00 9.981432488267523162e-01 1.384954181849506583e+00
2.299730397413084049e+00 1.211000432363455337e+00 7.211527260113586024e-01 2.997303974130840487e-01
3.906874909961904674e+00 1.441722195163859466e+00 1.321581301398999653e+00 1.906874909961904674e+00
3.124650078655714314e+00 4.850137001997045783e-01 5.017941716442591016e-01 1.124650078655714314e+00
2.784696807147438946e+00 1.780964163447246618e+00 8.366793246417008056e-01 7.846968071474389461e-01
3.356519756498087759e+00 1.848785273912816995e+00 1.670996326636935869e+00 1.356519756498087759e+00
3.046626029814195391e+00 1.956583698330206511e+00 8.312165266505855410e-01 1.046626029814195391e+00
2.833380440329849925e+00 1.504904850852683884e+00 2.976451000846158657e-01 8.333804403298499253e-01
2.091413929874750721e+00 1.682337421175511105e+00 1.048903299376139131e+00 9.141392987475072118e-02
2.151955058763412865e+00 4.337422650266686830e-02 7.655799907430804740e-01 1.519550587634128647e-01
3.356131728295726369e+00 9.481123942917146774e-01 1.375445139601432443e+00 1.356131728295726369e+00
2.414959221739912731e+00 1.453923169881891742e+00 1.281009580381337054e+00 4.149592217399127314e-01
3.553853360848164833e+00 8.615354781597042155e-01 7.054880523765811873e-01 1.553853360848164833e+00
3.106636369022550248e+00 1.629236530358660451e+00 6.409913599226453318e-01 1.106636369022550248e+00
2.194500240843035854e+00 1.242244018985533049e+00 7.317950839825750897e-01 1.945002408430358543e-01
2.818986103635849005e+00 1.743952213989785394e+00 5.205117503631420117e-01 8.189861036358490054e-01
2.257590434595210027e+00 1.470207868688754749e+00 1.021343563477347782e+00 2.575904345952100272e-01
3.826474635034464278e+00 1.539979863229702373e+00 1.891875486559265740e+00 1.826474635034464278e+00
2.058272314159919958e+00 1.893837433530632497e+00 1.085495124092331398e+00 5.827231415991995789e-02
3.396583508818523001e+00 1.227897842539636075e+00 1.905227534508455722e+00 1.396583508818523001e+00
3.634229461000542116e+00 7.162196341534283750e-01 1.216327316178256401e+00 1.634229461000542116e+00
3.532378294591085766e+00 9.727240533001118017e-01 1.911412528848800862e+00 1.532378294591085766e+00
2.962664906362533213e+00 8.536914041015337684e-01 3.759610666085211328e-02 9.626649063625332126e-01
3.555523830943480235e+00 8.331642741836176036e-02 1.676226018898785419e-01 1.555523830943480235e+00
2.811342166766337414e+00 1.794340608597218667e+00 4.403946764167134820e-01 8.113421667663374137e-01
3.258094905192453261e+00 1.610763606969797035e+00 2.594207337031204652e-01 1.258094905192453261e+00
3.855778725438135712e+00 6.713807258723369920e-01 1.427692423446404346e+00 1.855778725438135712e+00
2.665260736452895074e+00 5.280877531823753301e-01 9.757544670012705534e-01 6.652607364528950740e-01
3.960087842141023273e+00 1.922015254253137906e+00 2.382638108319570236e-01 1.960087842141023273e+00
3.238182558976294700e+00 4.870934356741232207e-01 1.925353458354206682e+00 1.238182558976294700e+00
2.225324217584335074e+00 1.278453187466277674e+00 2.252000309135646638e-01 2.253242175843350736e-01
2.164606617960956658e+00 8.610427084303104994e-01 2.682119036920858068e-01 1.646066179609566582e-01
2.216152441845969712e+00 1.414195774198924394e+00 1.191402512833183769e+00 2.161524418459697117e-01
3.516626861259029901e+00 1.191809497506348903e+00 2.720324520447670036e-01 1.516626861259029901e+00
2.155677949419902539e+00 1.238504759215446338e+00 1.804948208341543348e+00 1.556779494199025393e-01
2.334082164457379704e+00 1.215263416426523468e+00 1.854461155270534567e+00 3.340821644573797045e-01
2.091536463956779723e+00 2.175502963012478919e-01 1.713452705242376251e+00 9.153646395677972336e-02
3.777049948351907993e+00 1.732623037323290704e+00 2.730411061810937845e-01 1.777049948351907993e+00
2.575219881313647541e+00 4.360029103715286070e-01 1.070437885370512099e-02 5.752198813136475408e-01
2.484019970858427406e+00 7.323722301649091548e-01 1.747806736249442938e+00 4.840199708584274063e-01
2.772222205955450214e+00 1.932545793144924806e+00 1.551495892151165457e+00 7.722222059554502138e-01
3.780937853139527238e+00 1.828896992973109592e+00 1.325930231948984517e+00 1.780937853139527238e+00
3.200462188387390938e+00 1.888836311240151167e+00 1.575000818950067716e+00 1.200462188387390938e+00
2.241369354184942431e+00 1.684893202559080150e+00 1.714277752767318308e+00 2.413693541849424307e-01
2.025511208055506884e+00 3.383701989599396942e-01 4.814952704141506334e-01 2.551120805550688431e-02
2.890103461920396910e+00 2.321672001830199505e-03 1.935837927524250990e-01 8.901034619203969100e-01
2.283267830144246169e+00 5.891143516724830498e-01 8.548730534778001822e-01 2.832678301442461688e-01
3.911874738991922840e+00 7.033884582165901289e-01 6.008581009350082436e-01 1.911874738991922840e+00
2.680826061271698535e+00 2.892493344231197305e-01 4.595794556979186929e-01 6.808260612716985349e-01
3.859137981062798595e+00 1.621158557655044685e-01 6.902897180619735895e-01 1.859137981062798595e+00
2.262873028963539035e+00 1.810161659348381580e+00 7.358677250139071813e-01 2.628730289635390349e-01
3.882898671199659812e+00 4.345954542783301289e-01 1.449187399906519236e+00 1.882898671199659812e+00
3.853396825044332008e+00 1.712817495164657977e+00 1.208995610788664132e+00 1.853396825044332008e+00
3.640917786638796727e+00 6.501058623161306560e-01 4.039901287072604763e-01 1.640917786638796727e+00
2.405396762863386773e+00 8.309618494621184848e-01 1.490599644149919634e+00 4.053967628633867726e-01
3.617530029327482133e+00 7.660544165965939012e-01 7.301428961355123093e-01 1.617530029327482133e+00
2.258339344532825255e+00 1.478887730532698619e-01 1.978471287753050589e+00 2.583393445328252547e-01
3.338370541282883686e+00 1.726752566755280993e+00 8.885133356390435555e-01 1.338370541282883686e+00
3.449790372231171354e+00 4.656064621655886526e-02 1.368262081535743580e+00 1.449790372231171354e+00
3.405215930270159674e+00 1.335285487605316845e+00 5.041303463227277959e-01 1.405215930270159674e+00
3.461261201920790231e+00 1.823787965214701323e+00 1.308451322820232576e+00 1.461261201920790231e+00
2.354538905925241288e+00 1.768609098243238753e+00 3.867347024683975842e-01 3.545389059252412878e-01
3.668136322882542100e+00 1.613335286946289138e+00 1.431948752479109910e+00 1.668136322882542100e+00
3.100881176370465120e+00 1.683171298631396695e+00 1.774001089622482930e+00 1.100881176370465120e+00
2.454418818843202565e+00 6.001620401489893286e-01 1.207235772398100204e+00 4.544188188432025655e-01
3.941822476625637783e+00 1.591157749416281408e+00 1.407668694601907244e+00 1.941822476625637783e+00
2.045364534473435469e+00 7.084763288519078106e-01 1.329393491844270248e+00 4.536453447343546941e-02
2.390150055185612743e+00 1.004353961831445652e+00 6.695292337317448883e-01 3.901500551856127430e-01
2.752453331928226721e+00 4.298653082788985724e-01 1.696053458659614988e+00 7.524533319282267207e-01
2.179269916321220357e+00 1.787989730912193709e+00 2.537352047805430111e-02 1.792699163212203572e-01
2.062825632348286309e+00 1.556809318510161688e-01 1.913358060582901921e+00 6.282563234828630883e-02
2.968335207949696297e+00 1.799169182607101014e+00 1.024267759465544714e+00 9.683352079496962972e-01
3.948012118243674706e+00 1.131445934454755609e-01 6.223239364079247160e-02 1.948012118243674706e+00
3.980060507844031648e+00 3.182199046568412459e-01 1.068476138238890538e+00 1.980060507844031648e+00
3.930062179179712345e+00 1.265443141845419506e+00 9.627270587122975787e-01 1.930062179179712345e+00
3.367399368599321097e+00 3.740616113777250895e-01 6.693778263272143203e-01 1.367399368599321097e+00
2.674803528544329012e+00 2.609909707331365958e-01 3.923776444924889084e-01 6.748035285443290121e-01
3.231271406433108950e+00 4.455496030317391831e-01 7.833698113643416949e-01 1.231271406433108950e+00
2.186110206273989220e+00 6.835247789598224433e-01 3.373804005067890799e-01 1.861102062739892204e-01
3.772235620054721572e+00 9.357914752187890262e-01 7.156971134706124893e-01 1.772235620054721572e+00
2.892645849525382840e+00 2.837555803873459404e-02 9.688492253618008476e-01 8.926458495253828396e-01
2.833821557260502999e+00 1.407841409223005824e+00 2.996513308848005597e-01 8.338215572605029990e-01
3.112552054063358220e+00 2.945088242297009273e-01 1.227224629813461254e+00 1.112552054063358220e+00
3.865834412915795770e+00 6.847088561617087343e-02 9.301939260588145686e-01 1.865834412915795770e+00
2.816969641848310779e+00 1.942928459234772864e+00 1.800735984144642199e+00 8.169696418483107792e-01
3.494643685878345174e+00 1.918504423189528296e+00 3.146574090686906633e-01 1.494643685878345174e+00
3.299395383662337533e+00 1.714064481762181069e+00 3.254882918389840896e-01 1.299395383662337533e+00
2.555406540765681189e+00 1.492080594283688999e-01 8.605342888304432503e-01 5.554065407656811892e-01
2.196162587864208593e+00 1.923594668269380970e+00 3.121891238365146481e-01 1.961625878642085929e-01
2.134270680631180639e+00 5.368205965805439295e-01 8.980964614904096699e-01 1.342706806311806389e-01
3.371847608532598795e+00 1.682405051679724428e+00 1.070412177502741091e+00 1.371847608532598795e+00
2.362247659091569307e+00 1.121747455208664146e+00 8.215801701346203689e-01 3.622476590915693073e-01
2.457730678088040577e+00 6.689136612744759347e-01 4.851390992892734566e-01 4.577306780880405768e-01
3.945705063685166714e+00 3.909575549495536428e-01 1.452532087287403462e+00 1.945705063685166714e+00
3.485214026126740805e+00 2.112927380600220229e-01 5.663947376810014589e-01 1.485214026126740805e+00
3.263833917206714563e+00 4.536963647477065820e-02 1.268661878625656492e+00 1.263833917206714563e+00
3.510667121107865718e+00 1.603829809820511931e+00 8.578668789880183887e-02 1.510667121107865718e+00
3.994561771642006320e+00 9.387408440751840999e-01 7.892994934673402962e-01 1.994561771642006320e+00
3.448781551565193393e+00 1.317896320309364100e+00 9.667414837106136360e-01 1.448781551565193393e+00
3.809754591816582270e+00 1.471012306550671056e+00 1.957241707313131629e+00 1.809754591816582270e+00
2.042754281684107553e+00 1.198602417089220218e+00 1.737463529685508101e+00 4.275428168410755347e-02
3.301090290123890547e+00 1.416006303573683400e+00 8.603461188765451073e-01 1.301090290123890547e+00
2.070360464232749109e+00 1.378331514964196369e+00 8.673250047488256786e-01 7.036046423274910921e-02
3.537313462481146864e+00 1.323450861021058023e+00 1.468340646846704622e+00 1.537313462481146864e+00
3.847442030337139940e+00 1.684528383799589912e+00 8.655572296832736434e-02 1.847442030337139940e+00
2.324513520562358160e+00 1.784703951009871448e+00 1.221696115309900410e+00 3.245135205623581598e-01
2.277557917075002436e+00 3.836663855802617817e-01 1.448452189498930176e+00 2.775579170750024360e-01
2.054240092300781750e+00 4.946597196005466657e-01 1.522038233204550117e-01 5.424009230078175037e-02
2.296864187667439161e+00 1.495349618385891644e+00 2.684046893477032292e-01 2.968641876674391611e-01
3.890174399325107668e+00 1.711570070682116862e+00 8.479506337995084131e-01 1.890174399325107668e+00
2.280895933462227632e+00 1.092760647563993492e+00 1.937976231893953738e+00 2.808959334622276316e-01
2.101783557369047095e+00 9.773916998246774401e-01 1.046063400531465071e+00 1.017835573690470952e-01
3.771254527207208440e+00 2.460303285437406284e-01 1.768339090064680930e+00 1.771254527207208440e+00
2.396493635390832821e+00 2.692453139784851679e-01 1.515350192595221523e+00 3.964936353908328215e-01
2.260888745825161639e+00 7.330576735635132568e-01 5.248805313822657581e-03 2.608887458251616387e-01
3.639279101029196717e+00 1.937760945928040268e+00 1.479350452501760449e+00 1.639279101029196717e+00
2.321761066780535288e+00 1.659829668856119822e+00 7.243003567302579437e-01 3.217610667805352875e-01
2.469634744680659466e+00 1.763661352745913735e+00 1.519116034432228757e+00 4.696347446806594661e-01
2.695003001131218490e+00 1.065462172257605200e-01 5.372721075297035576e-01 6.950030011312184897e-01
3.701510283956990666e+00 6.381107003656198984e-01 3.402387503400521318e-01 1.701510283956990666e+00
3.665089041216175847e+00 6.216722012589968038e-01 5.361193315222423372e-02 1.665089041216175847e+00
2.985377397893178575e+00 2.246599366913819562e-01 4.809684013461497099e-01 9.853773978931785749e-01
2.544191040430215711e+00 6.678327175235534430e-01 6.127688340547254864e-01 5.441910404302157112e-01
3.840077910696333419e+00 9.303418040294086921e-02 1.221639362646384619e+00 1.840077910696333419e+00
2.012110842116891174e+00 9.037219657126682737e-01 2.174309786329462479e-01 1.211084211689117396e-02
3.261481574236083425e+00 9.339265387360065063e-01 1.660894572481147247e+00 1.261481574236083425e+00
3.080057577633244392e+00 1.404707995792275899e-01 5.506915234948683846e-02 1.080057577633244392e+00
2.394556237325426551e+00 1.266426279196157578e+00 1.576410815813225064e+00 3.945562373254265509e-01
2.474400636899478645e+00 1.415147139145593647e+00 1.079818037313124979e+00 4.744006368994786449e-01
2.165483149802139629e+00 1.573567277925725261e+00 1.616567071564476210e+00 1.654831498021396285e-01
3.620109515883941143e+00 1.932776482815160568e+00 8.153784112967541464e-01 1.620109515883941143e+00
2.602731594203246068e+00 1.659828853173768604e+00 8.447196954568452210e-01 6.027315942032460683e-01
2.482279108147385394e+00 1.802054234556277335e+00 2.354727650935406480e-02 4.822791081473853936e-01
2.332229331584663612e+00 1.044728245232336761e+00 5.285825886919817140e-01 3.322293315846636119e-01
2.137146215493761936e+00 2.669943872122138018e-01 1.032573244966821902e+00 1.371462154937619360e-01
2.934996206377740613e+00 1.191935921868791937e-02 4.347309985446436986e-01 9.349962063777406129e-01
2.854019908937811323e+00 4.191890837383880353e-01 1.817507107804820388e+00 8.540199089378113229e-01
2.865306626824170699e+00 8.618004863750401423e-01 3.261095717519535420e-02 8.653066268241706993e-01
2.282977371372309605e+00 1.810045618674900325e+00 1.076414875093953061e+00 2.829773713723096051e-01
